-7.841166810970326417e-02 6.823999807238578796e-03 -6.495205862497553662e-02
-7.526086134337950373e-02 6.823999807238578796e-03 -6.354887262230335399e-02
-7.893996617232364177e-02 6.823999807238578796e-03 -6.663461734221545751e-02
-8.182500302791595459e-02 9.827165025008015309e-03 -6.511591527697567494e-02
-2.567782910778802496e-01 6.823999807238578796e-03 4.741959779664323138e-03
-3.253347940333817800e-01 6.823999807238578796e-03 4.309636488605339544e-02
-3.169627579834074504e-01 6.823999807238578796e-03 5.924526056416868497e-02
-2.545356496172489491e-01 6.823999807238578796e-03 7.116138207797426118e-03
-2.448944602941476589e-01 6.823999807238578796e-03 6.715924285184554643e-04
-3.168823491267158676e-01 6.823999807238578796e-03 5.777029223822471860e-02
-3.041947620323746659e-01 6.823999807238578796e-03 2.581532912987227063e-02
-2.785166860368609165e-01 6.823999807238578796e-03 1.118451841397540003e-02
-3.196485987358331227e-01 6.823999807238578796e-03 4.055167619330070361e-02
-2.907659897285507777e-01 6.823999807238578796e-03 3.352407677935523300e-02
-2.718143316103829865e-01 6.823999807238578796e-03 1.552604124149223330e-02
-2.428871313952580824e-01 6.823999807238578796e-03 -1.727650282487842859e-03
-2.258094723926147573e-01 6.823999807238578796e-03 -8.254229245765944134e-03
-2.421719258339614933e-01 6.823999807238578796e-03 -3.803371210535005931e-03
-2.876436140802745567e-01 6.823999807238578796e-03 2.318117351349059316e-02
-3.013045952980888398e-01 6.823999807238578796e-03 4.304768623082031592e-02
-2.894447057754150343e-01 6.823999807238578796e-03 3.603867140780046829e-02
-2.751228513285767785e-01 6.823999807238578796e-03 2.034723910953700060e-02
-3.309835109192303393e-01 6.823999807238578796e-03 4.937316570112115777e-02
-2.920785271860625865e-01 6.823999807238578796e-03 2.154193893023300874e-02
-3.093034203672592741e-01 6.823999807238578796e-03 5.136837745851594028e-02
-2.971641725063975947e-01 6.823999807238578796e-03 2.692976767124618392e-02
-1.955145191402472837e-01 6.823999807238578796e-03 -3.236978587764850757e-02
-3.235114484631602672e-01 6.823999807238578796e-03 5.189472837221393436e-02
-2.911799501582393312e-01 6.823999807238578796e-03 2.697543436452228341e-02
-3.162154361774999201e-01 6.823999807238578796e-03 4.466061335530070731e-02
-3.246559904052322976e-01 6.823999807238578796e-03 5.761073567269125312e-02
-2.807924970863369118e-01 6.823999807238578796e-03 2.686754971072913278e-02
-3.222523349920285440e-01 6.823999807238578796e-03 6.094025500153087832e-02
-2.991244723109411363e-01 6.823999807238578796e-03 2.917301142304453213e-02
-2.526593478390271597e-01 6.823999807238578796e-03 5.875557161569115727e-03
-2.355104956966942442e-01 6.823999807238578796e-03 -8.210452101945354964e-03
-1.793529987335205078e-01 -1.801907612514355370e-03 -1.227989295256533275e-02
-1.793529987335205078e-01 6.166843740472461102e-03 3.757492496903486190e-02
-1.793529987335205078e-01 2.475378620304299546e-03 -1.972821054291257897e-02
-1.793529987335205078e-01 1.599328801192534746e-03 -6.443864709135403712e-03
-1.793529987335205078e-01 4.995650084220395332e-03 -4.007826791150502499e-02
-1.793529987335205078e-01 2.673548049103503799e-03 -9.804455493248896703e-03
-1.793529987335205078e-01 5.485438878322381438e-03 4.258778840205117155e-02
-1.793529987335205078e-01 -3.911143869976397083e-03 -1.607371022827375553e-02
-1.793529987335205078e-01 3.667206766329715942e-03 -4.079154190570440791e-02
-1.793529987335205078e-01 -1.859647889404236754e-03 -3.198981338509167965e-02
-1.793529987335205078e-01 6.689255670801691825e-04 -6.232918447395631445e-03
-1.793529987335205078e-01 -1.151693077440609989e-03 -2.765207165146923302e-02
-1.793529987335205078e-01 5.535663918660565716e-03 -1.304385109801384918e-02
-1.793529987335205078e-01 6.611749975056624949e-03 2.587916721506793721e-02
-1.793529987335205078e-01 5.039640849322986685e-03 -3.137622376706993010e-02
-1.793529987335205078e-01 -4.948214736501784297e-03 -2.138902164508964254e-02
-1.793529987335205078e-01 4.861937087845326702e-03 2.102661616501126651e-02
-1.793529987335205078e-01 4.975677625049921074e-03 -2.772956879364801841e-02
-1.793529987335205078e-01 -3.238223106841740459e-03 -4.571467127684608611e-04
-1.793529987335205078e-01 2.711794105015564831e-03 4.029445171159314054e-02
-1.793529987335205078e-01 -1.110987025761895133e-03 -3.386000701159180837e-02
-1.793529987335205078e-01 6.431711501893201156e-03 -3.310076076416332280e-02
-1.793529987335205078e-01 5.916571977769309772e-03 4.245625693423027425e-02
-1.793529987335205078e-01 6.681326147744883620e-03 6.919056646290892842e-02
-1.793529987335205078e-01 -1.177209390325383367e-03 -2.228117784795159706e-02
-1.793529987335205078e-01 3.364213256902475000e-03 -1.097099177313948237e-02
-1.785700023174285889e-01 7.409209934509620663e-03 4.285366672146505296e-02
-1.785700023174285889e-01 8.033527358542250085e-03 5.172928812927690689e-03
-1.850683394145291039e-01 7.620893587986216251e-03 -3.232215072896507668e-02
-2.163435129606035567e-01 7.347637550384850287e-03 -1.783429904308448527e-02
-2.256776498441702139e-01 7.419880367613589101e-03 -1.221564453095112801e-02
-1.936803440671086007e-01 6.958510866806558171e-03 -3.327552751368959005e-02
-2.891463673278365509e-01 6.848654382808802045e-03 1.704497960785655158e-02
-2.498108563201763277e-01 7.266971504503070070e-03 -5.484035207873605433e-04
-1.791505003307934107e-01 7.767930141480252140e-03 -3.426097741183525835e-02
-1.990558198774845244e-01 7.646045934781035315e-03 -2.460205010606990317e-02
-2.396200777113532410e-01 7.300414917266924604e-03 -5.737183210409432799e-03
-2.431992213852238183e-01 6.881686335521975360e-03 -7.340967596116652893e-03
-2.600513534884368316e-01 7.239319523829412274e-03 4.715822781609674275e-03
-2.108475905574250242e-01 7.654020233304323004e-03 -1.820519605770262034e-02
-2.024440473465365098e-01 7.485276521532463825e-03 -2.413670324749426707e-02
-2.987170874709562662e-01 7.029779259928045990e-03 2.370725001362276874e-02
-2.384039632975235024e-01 6.927543761955345589e-03 -9.528972438553079405e-03
-1.938985328539354069e-01 7.086996804185778653e-03 -3.207675398591725707e-02
-2.753561865231288208e-01 7.013033295161135230e-03 1.102634717430712313e-02
-2.295433647039052949e-01 6.979967167239835811e-03 -1.384394133909632937e-02
-2.123104480349017331e-01 7.652387144633630671e-03 -1.743369497206821717e-02
-1.785700023174285889e-01 -8.679645320052001983e-03 -3.763105531081314264e-02
-1.785700023174285889e-01 -6.868811454697392425e-03 -3.585653265115083810e-02
-1.785700023174285889e-01 1.798026427401881126e-03 1.385267808899402764e-02
-1.785700023174285889e-01 2.316289872991294727e-03 1.816344377265047966e-02
-1.785700023174285889e-01 -9.236800489489361242e-04 1.695924648225282522e-02
-1.785700023174285889e-01 4.396927322584832237e-03 4.919889291534382258e-02
-1.785700023174285889e-01 2.100482690965625298e-03 1.169543099329899832e-02
-1.785700023174285889e-01 1.712850099267258612e-03 2.745620615445391877e-02
-1.785700023174285889e-01 5.692142816666533739e-03 5.644173944381501717e-02
-1.785700023174285889e-01 -2.568835165035893153e-04 -3.541034054612262477e-02
-1.785700023174285889e-01 5.858610558853758615e-03 6.142331844332711566e-02
-1.785700023174285889e-01 2.352745143290316948e-03 3.929783953979938682e-02
-1.785700023174285889e-01 -2.197012896622857481e-03 -7.758592744159721610e-03
-1.785700023174285889e-01 4.478219802149482551e-03 5.329985684008835267e-02
-1.785700023174285889e-01 -7.057107722966363822e-04 -3.955411133018628400e-02
-1.786987504766282542e-01 -2.869214722213824040e-03 7.017707791344308943e-02
-1.785700023174285889e-01 -3.440357805859210749e-03 3.487921704381526100e-02
-1.785700023174285889e-01 -1.948249203120016454e-03 2.065556418252927073e-02
-1.785700023174285889e-01 -5.348651573253998363e-03 -2.983933920275932961e-03
-1.785700023174285889e-01 -3.395843599657659417e-04 3.031437386982396842e-02
-1.785700023174285889e-01 -2.181789702620246657e-04 5.129209690872395255e-02
-1.785700023174285889e-01 -5.135621113904649537e-03 2.161287828221981899e-02
-1.785700023174285889e-01 -4.064144068098619195e-03 2.725692529155995802e-02
-1.785700023174285889e-01 -2.359821558615679549e-03 7.253151435933183344e-02
-1.785700023174285889e-01 -3.269191448199360289e-03 5.005943388427638863e-02
-1.785700023174285889e-01 -8.842370351162672296e-03 -2.492267227725701584e-02
-1.785700023174285889e-01 9.372753945109152558e-04 4.834019587823236430e-02
-1.785700023174285889e-01 -6.506744093394205633e-03 1.257615069457122120e-02
-1.785700023174285889e-01 -4.420060839992797502e-05 5.538916432297583126e-02
-1.785700023174285889e-01 -7.730909798231863639e-03 -2.342018619865982032e-02
-1.785700023174285889e-01 -3.704174473580116710e-03 2.519008528649108875e-02
-1.793232958143517186e-01 -1.011082384637898221e-02 -4.127037663175844168e-02
-2.082324127479908693e-01 9.886501639575820052e-03 1.269742367559022894e-02
-2.104313530883284433e-01 9.650088433406424707e-03 7.142970062108719431e-03
-3.051253924404749851e-01 8.289305936257890944e-03 4.131182482306648696e-02
-2.450664742232533666e-01 9.246270179027524586e-03 2.255077577043751100e-02
-2.035504675405870878e-01 9.957589710756317714e-03 1.112601224569631508e-02
-2.441267448358642733e-01 9.214604771325523788e-03 2.081172241282779056e-02
-2.596555122943676741e-01 9.041740623104539687e-03 2.797366949897699129e-02
-2.973116871591288124e-01 8.434981558545417632e-03 3.952725543160202221e-02
-2.438775330487428228e-01 9.324308162812693784e-03 2.401090080018686984e-02
-1.855526166604724025e-01 1.019171665035555410e-02 3.872189485411764442e-03
-2.240026778980525046e-01 9.565020882710528402e-03 1.544791382044597393e-02
-2.067779028611531067e-01 9.880311197065448289e-03 1.133290262098135895e-02
-2.023197117483409024e-01 9.853828638073129295e-03 6.917826292059023850e-03
-1.925589382807941230e-01 9.942914805201701067e-03 1.809581201575729409e-03
-2.036802765224528244e-01 9.860022508996941354e-03 8.206712390189843664e-03
-2.432579087182572264e-01 9.316714256145254558e-03 2.327598362671943685e-02
-1.817012233525829024e-01 1.025263368166177622e-02 2.655149664682613948e-03
-2.165151418678953332e-01 9.593277618276075183e-03 1.028708071979441904e-02
-3.108911700674332201e-01 8.197182809556405325e-03 4.310509308863770539e-02
-1.807507350987792027e-01 1.018003406803542031e-02 -3.612737945774061044e-04
-2.270717380060521540e-01 9.631912207174334398e-03 1.993807089161655360e-02
-3.106417343639698569e-01 8.255116031522789430e-03 4.464917393515530075e-02
-3.126652598902238678e-01 8.254802101235083137e-03 4.613543334551388486e-02
-3.074957158502621413e-01 8.307324830035846958e-03 4.372910391969564436e-02
-2.589833446991139931e-01 9.095314265337318266e-03 2.908207992866497851e-02
-2.377800084650516510e-02 1.511794267038857678e-02 2.174515112367812059e-02
-2.377800084650516510e-02 1.658258907719669523e-02 1.048028423583063570e-02
-9.357945537567612104e-02 1.371704036994658010e-02 -1.995044646062483357e-02
-9.561177931850718681e-02 1.384790788901202330e-02 -1.176285913493492138e-02
-6.817343927421418148e-02 1.710918206586437354e-02 -1.835574906870331841e-02
-9.593173180653344345e-02 1.376981754620377855e-02 -1.251417923897917700e-02
-9.420136641236684372e-02 1.389229592674377789e-02 -1.464975785758021107e-02
-9.665458142274534203e-02 1.356125053763245110e-02 -1.487607487244889566e-02
-8.753411745489929341e-02 1.475761777778704029e-02 -1.474542868383932684e-02
-7.441050558900483280e-02 1.612101827058912140e-02 -2.196002545888205842e-02
-7.101274725763578877e-02 1.670862306612191234e-02 -1.897766533190799534e-02
-9.923030652994505041e-02 1.304789738428958901e-02 -1.854082020092642086e-02
-5.533981703237910582e-02 1.868196950983179103e-02 -2.045939760586908823e-02
-8.054055979453438041e-02 1.548265339321868231e-02 -1.862148040248580438e-02
-1.480248625523577222e-01 1.121872266233898789e-02 -8.612190973714805436e-03
-1.753031908463673905e-01 1.020364630202498860e-02 -5.250269884614782584e-03
-1.765490031117630809e-01 1.012131598822196658e-02 -5.767493345858174837e-03
-1.537197633144914422e-01 1.078449655157348759e-02 -1.205574323229022596e-02
-1.651537646163379058e-01 1.053657669230583654e-02 -7.335565390990653536e-03
-1.057525975877995905e-01 1.309907145504121337e-02 -8.091384214320325452e-03
-1.108197496616145639e-01 1.285953811440200545e-02 -8.417428168448252979e-03
-1.630007931225140039e-01 1.043870863166069390e-02 -1.091980584356238779e-02
-1.372193050468079323e-01 1.177924761019761429e-02 -6.989646079686209421e-03
-1.459409677130804606e-01 1.124278937788150690e-02 -9.866249005322654322e-03
-6.247600167989730835e-02 6.916448699931559280e-03 -7.192450480483242314e-02
-6.247600167989730835e-02 1.267830761612276022e-02 -6.663541323677388273e-02
-6.247600167989730835e-02 1.357496995818150039e-02 -6.264221296217446777e-02
-4.312700033187866211e-02 8.579625995210973105e-03 -7.440199502879951687e-02
-4.312700033187866211e-02 1.211769106987098561e-02 -7.271942786292716343e-02
-6.754098614340645068e-02 1.695976554929524288e-02 -2.334875513813654963e-02
-2.593035848606287108e-02 2.224820891531766737e-02 -3.234047131723308960e-02
-4.202819541496770339e-02 2.023504080760855917e-02 -3.085808396329897327e-02
-5.422376922588371950e-02 1.867965322265946471e-02 -2.789318811094960299e-02
-4.923481738547016984e-02 1.930513649583349978e-02 -2.844846833816558340e-02
-4.398839903784269173e-02 2.003045398923857315e-02 -3.314839434977654570e-02
-2.492775575531029283e-02 2.237019303000963716e-02 -3.222564669059273246e-02
-5.633652227009331576e-02 1.847249267606167894e-02 -3.117498702911311245e-02
-5.845329643991151874e-02 1.818244997419374287e-02 -2.943720446440442964e-02
-2.768021649965986611e-02 2.209622229160617193e-02 -3.625222945659494628e-02
-8.683976907948423585e-02 1.454270526423594515e-02 -2.135302232111879750e-02
-5.684679648580918954e-02 1.837565167022132614e-02 -2.911572180954177108e-02
-5.599185694947081404e-02 1.843599561989928831e-02 -2.635681818686115910e-02
-6.197710586201698318e-02 1.608279889861691236e-02 -6.823423710488062122e-02
-3.087468614944842080e-02 2.067112998368906066e-02 -6.836986995232711972e-02
-6.120878945038821933e-02 1.617862848710719531e-02 -6.846810711081588452e-02
-3.228430534220758097e-02 2.037594816607512377e-02 -6.951178141404480704e-02
-4.435812266246132174e-02 1.864961141477047141e-02 -6.873746372949572636e-02
-5.542112120273740006e-02 1.673745918299902880e-02 -7.237572750566048652e-02
-6.701422971853504551e-02 1.515037553013288615e-02 -7.070409844139653732e-02
-6.433524500349299680e-02 1.578056813458633689e-02 -6.762254279583899963e-02
-6.209193432886883635e-02 1.612115969594672335e-02 -6.750524111891513523e-02
-8.609522367854385849e-02 1.265763118345977767e-02 -6.637386485532374703e-02
-1.785700023174285889e-01 8.500364033543605230e-03 2.668848252685230432e-02
-1.191783041891985584e-01 1.242325193894113812e-02 -9.752472424735753390e-03
-1.418793334604600553e-01 1.117547316097044705e-02 -1.479582324636734975e-02
-1.075751353995725162e-01 1.279905352102385374e-02 -1.259054573633359118e-02
-1.308084546286616690e-01 1.181868264569113473e-02 -1.161910752776603405e-02
-1.384969107746519268e-01 1.143705076761905408e-02 -1.248022683363356200e-02
-1.741657362702151990e-01 9.790449288542607889e-03 -1.391394234635106621e-02
-1.293615442623582412e-01 1.194982623572423200e-02 -1.023064531143168601e-02
-1.449560739068762871e-01 1.118453077320679528e-02 -1.179594951788026647e-02
-1.379855034362317823e-01 1.128020124849074025e-02 -1.619032390718387615e-02
-1.316063124811569229e-01 1.182206168640576906e-02 -1.081988452132372387e-02
-1.052034187707470980e-01 1.274718284895282744e-02 -1.583100253202475091e-02
-1.132489365756191441e-01 1.262256782380387354e-02 -1.105233580848660052e-02
-1.574512048149767918e-01 9.939916314062701222e-03 -2.230890165201421943e-02
-1.549670163362667219e-01 1.028956693903231023e-02 -1.918897772614277381e-02
-1.681869551517021222e-01 9.515203352620557609e-03 -2.136432240532569471e-02
-1.436879124847673661e-01 1.072346462419009570e-02 -2.034486118907349872e-02
-1.708221205993809833e-01 9.823971551912901584e-03 -1.564720981590925208e-02
-1.217333506523044506e-01 1.174806416800719400e-02 -2.020385066841002761e-02
-1.772187423029879527e-01 9.126924208793891699e-03 -2.098105657862743903e-02
-1.784165704531044949e-01 9.084970735178951942e-03 -2.080350620513279902e-02
-1.490265325932988161e-01 1.079246694657186312e-02 -1.615380332721099224e-02
-1.394427825923254260e-01 1.088818599758905985e-02 -2.076111282137539649e-02
-1.976886147919784120e-01 8.134701044051657545e-03 -2.074585003302002739e-02
-2.375834832522181195e-01 8.098210292685240411e-03 5.620701082580947805e-04
-2.144816580660872662e-01 7.962573529190037844e-03 -1.339443363556890032e-02
-2.385698595538472411e-01 7.735104490722046790e-03 -2.648903631339398490e-03
-2.870599489206792643e-01 7.449154377564380300e-03 2.075654728818004599e-02
-2.984286646505932561e-01 7.372493607872530018e-03 2.614479951417999701e-02
-2.311844105032351548e-01 7.976292840054039629e-03 -4.174227602921132263e-03
-2.010924928754780350e-01 8.188200550018827004e-03 -1.834360934298438772e-02
-1.840488841907826911e-01 8.458281765563346877e-03 -2.482037447977887556e-02
-2.021199232176146277e-01 8.006281032122277569e-03 -1.966249710517131710e-02
-2.696200529021192116e-01 7.844337410851007567e-03 1.535538373045250427e-02
-2.855669477489248820e-01 7.649819279179269522e-03 2.201582155135942825e-02
-2.192625093348730125e-01 8.184686970825380201e-03 -8.503723425939777730e-03
-2.166986631435623978e-01 7.815038343999628975e-03 -1.371190667378343643e-02
-2.160065451445768170e-01 8.028741999223789477e-03 -1.188276353589680714e-02
-2.785392274398079682e-01 7.565981411531454148e-03 1.733079493076449679e-02
-2.172584090352765451e-01 8.151107159532633081e-03 -9.939564167959134139e-03
-1.975500346714630373e-01 8.435743660550337406e-03 -1.771453358453446356e-02
-2.981069749804308167e-01 7.457542366859831739e-03 2.684761625612102492e-02
-1.108311482277590243e-01 9.703990991652144960e-03 -6.235784741528442587e-02
-1.793529987335205078e-01 -1.034021462613752412e-03 -4.193567224386731546e-02
-1.785700023174285889e-01 9.326459110718995221e-03 -8.871222220140473347e-03
-2.850950355655242907e-01 7.351116225021097662e-03 1.889637574064455261e-02
-2.653521499461232169e-01 7.413481777424842795e-03 8.918309581900631111e-03
-2.009062306996321767e-01 7.825770870095645829e-03 -2.213822473273237279e-02
-3.065239037608806227e-01 7.036027385353351912e-03 2.793135625793069163e-02
-3.239788827987586384e-01 7.146011006393169704e-03 3.795128207246731278e-02
-3.255650722480935011e-01 7.840500538183392196e-03 4.599126789259969789e-02
-2.574804757966630553e-01 8.903880599868463364e-03 2.287724226319834409e-02
-3.083378730962467729e-01 8.208943454007272544e-03 4.173773837665266384e-02
-3.014686387528263678e-01 8.232933367203194505e-03 3.806887851149622082e-02
-2.942600706582484404e-01 8.389948649186945023e-03 3.633466382671440842e-02
-2.190874683132854606e-01 9.496642765193860983e-03 9.732800581489411962e-03
-2.254452793220405038e-01 9.222377504373525936e-03 8.674679798507986539e-03
-2.354023920250614132e-01 9.036727572199095004e-03 1.149048162024890463e-02
-2.187156520474787813e-01 9.299815005601095447e-03 5.875851601677570257e-03
-1.936209470372155239e-01 9.489175412777351229e-03 -6.414533774579456171e-03
-2.886173832553686203e-01 8.374999719147955754e-03 3.270150975068879251e-02
-2.471503656779847624e-01 8.866114530763316570e-03 1.571575987213846837e-02
-1.895097378153032253e-01 9.795880155903753314e-03 -3.287350539676416050e-03
-2.621485937762110252e-01 8.587938154614567499e-03 1.998447069181072400e-02
-1.982591553099465886e-01 9.509512532265671989e-03 -3.111060696810885595e-03
-2.543897563990155652e-01 8.752341796709028898e-03 1.815842911226700496e-02
-2.939676392243777969e-01 8.229042962274508988e-03 3.335299989801979170e-02
-2.627475709111419255e-01 8.710218363850210851e-03 2.264228583490239879e-02
-2.719487420958496271e-01 8.543494542546365908e-03 2.533440845211473377e-02
-2.437439731334831161e-01 8.950771053465048088e-03 1.514674118227994637e-02
-2.348568161189917569e-01 8.950666841674444901e-03 9.541725909619661744e-03
-2.480567402578716663e-01 8.973253120605312674e-03 1.828503139971964647e-02
-2.330311341058021180e-01 9.005588922391642367e-03 9.414831731552053551e-03
-1.875462260633633527e-01 9.642221247024471489e-03 -7.390583787627240386e-03
-2.003505600257602937e-01 9.438210462470519174e-03 -3.122076647186565294e-03
-2.137808566985943959e-01 9.340685348277876637e-03 3.526735338810456713e-03
-2.047968446088910266e-01 9.112159474016747612e-03 -5.462311914262552026e-03
-1.797623543628156795e-01 9.524521078221666326e-03 -1.419498276044973278e-02
-2.257479556822541422e-01 8.851537022799759943e-03 2.967930972312418647e-03
-2.541194899390998296e-01 8.538833184239766685e-03 1.491821188241441304e-02
-2.314213867445920059e-01 8.451108603235571448e-03 8.700188788131890671e-04
-1.906038579136054567e-01 9.200950167599235979e-03 -1.233882779105520411e-02
-2.083058297499956191e-01 9.086983316461200860e-03 -3.805024361633678465e-03
-1.851258928158266148e-01 9.444111804328931409e-03 -1.221862523759125602e-02
-2.057685487456128171e-01 8.643282444262540345e-03 -1.113792161804186970e-02
-2.478350288265384616e-01 8.382979899709560798e-03 9.281360101822830333e-03
-2.744145567260807828e-01 8.259113100819533496e-03 2.272245925650146631e-02
-2.503117642896192097e-01 8.548547661869453432e-03 1.288601810122646379e-02
-2.586689155066352885e-01 8.398466586929557304e-03 1.563620059292360892e-02
-1.806400922565067069e-01 9.076870975326377725e-03 -1.964201149588557654e-02
-1.879914095020511489e-01 9.251789801173821576e-03 -1.314641803024915734e-02
-1.857579387371287860e-01 9.224737855842515127e-03 -1.477338039688000718e-02
-2.507480072469434051e-01 8.389923136704295972e-03 1.102693870701498824e-02
-2.721623061825125811e-01 8.298978454755509548e-03 2.197356322762039627e-02
-2.423043617336706479e-01 8.631873055448121765e-03 9.447769019517521238e-03
-2.459937451683643361e-01 8.233836224767841078e-03 6.396756929798283475e-03
-2.918157880452058039e-01 7.643133579530354133e-03 2.533479827820642183e-02
-2.305062299469289311e-01 8.374144971698286102e-03 -5.322067984061332191e-04
-2.459234193757625919e-01 8.185437345972806228e-03 5.928975651466758534e-03
-3.250110517263244958e-01 7.398530137915833652e-03 4.068546316081053660e-02
-3.294495120011746159e-01 7.507853291820052594e-03 4.400172808406643821e-02
-2.641800442941336091e-01 8.547645017048853197e-03 2.052540736451919506e-02
-2.875379635777660647e-01 8.190538530277666207e-03 2.910688584042977686e-02
-2.300086250747720995e-01 8.919077770348483869e-03 6.232719828666154205e-03
-3.333277162750302169e-01 7.526751682721245784e-03 4.634716275055213164e-02
-3.146416018464400777e-01 7.894943752239308790e-03 4.043201329029039170e-02
-1.455037933844161580e-01 6.916270729859216003e-03 -5.220305853350026143e-02
-1.394042290769858528e-01 8.123238466238649758e-03 -5.398943116371858475e-02
-1.554665808851821152e-01 7.246499010341161950e-03 -4.928527782647575128e-02
-2.713808734530089861e-01 7.286218031977719639e-03 6.843240400702590986e-02
-1.798721488999813489e-01 6.856528162962201647e-03 7.180366678618120557e-02
-1.853966172455046302e-01 7.801795820106632168e-03 6.386084126060534438e-02
-2.781796475588226847e-01 7.354187968341843219e-03 6.787848419327989491e-02
-2.770701811768734313e-01 7.062853404367998300e-03 7.032808385864493250e-02
-2.155797114691346272e-01 7.575257031258395349e-03 6.584910348855077533e-02
-2.281854834943440324e-01 7.377531166850873068e-03 6.754754247250543964e-02
-2.215334147492860062e-01 7.215914660303262944e-03 6.889021490183569463e-02
-1.803687069004895338e-01 7.937493551840703668e-03 6.270495843395666735e-02
-1.926729979647380520e-01 7.675768472620638286e-03 6.494136039647079028e-02
-2.816590651736490813e-01 6.994773391926154861e-03 7.083434749430382593e-02
-3.127005855978675086e-01 6.979078586414588434e-03 7.094827705913028804e-02
-2.517245406936244323e-01 6.935773203632409657e-03 7.126263351365155763e-02
-2.371366466252589622e-01 6.823999807238578796e-03 6.688971809300164884e-02
-2.205169806836427271e-01 6.823999807238578796e-03 -1.791782119465665235e-03
-2.466350595259957368e-01 6.823999807238578796e-03 4.149996886123172996e-02
-1.972984109887708226e-01 6.823999807238578796e-03 1.644728545532844755e-02
-2.028359132309257573e-01 6.823999807238578796e-03 -2.710519162435032214e-03
-2.903711149339031072e-01 6.823999807238578796e-03 5.503331737005867641e-02
-1.904305794607482061e-01 6.823999807238578796e-03 -1.180244903751484498e-02
-1.918330911305110298e-01 6.823999807238578796e-03 -1.818097969608675757e-02
-2.204307711546224513e-01 6.823999807238578796e-03 2.647639241762856505e-02
-2.540982673074258513e-01 6.823999807238578796e-03 1.594934135762837019e-02
-2.858811911150086482e-01 6.823999807238578796e-03 5.437230221048526546e-02
-2.381327913967075105e-01 6.823999807238578796e-03 2.724711750467027210e-02
-2.679712635381616970e-01 6.823999807238578796e-03 4.321639662595312681e-02
-3.254712535331064083e-01 6.823999807238578796e-03 6.992267116455352927e-02
-1.899017202922174130e-01 6.823999807238578796e-03 -2.496579923236037779e-02
-1.855273296097229851e-01 6.823999807238578796e-03 2.011920606389052540e-02
-1.930645495420669211e-01 6.823999807238578796e-03 6.652630485855616504e-02
-1.797679679146786114e-01 6.823999807238578796e-03 -1.976135972290721243e-02
-1.981990391620873648e-01 6.823999807238578796e-03 1.043307647165545027e-02
-2.702761657548045648e-01 6.823999807238578796e-03 2.941206572553232285e-02
-2.885133533821699903e-01 6.823999807238578796e-03 7.153033809748951533e-02
-2.911919844355479459e-01 6.823999807238578796e-03 5.279581766100760465e-02
-2.688001501729241904e-01 6.823999807238578796e-03 5.415696935562769321e-02
-2.598730376857399937e-01 6.823999807238578796e-03 5.904169310159697315e-02
-2.030742865844470946e-01 6.823999807238578796e-03 1.345620292419486691e-02
-2.354858056305173808e-01 6.823999807238578796e-03 2.888526558052930543e-02
-1.890862491711220450e-01 6.823999807238578796e-03 6.765564851355045095e-02
-1.804233118312453255e-01 6.823999807238578796e-03 7.082466597839784384e-02
-2.182748062334374795e-01 6.823999807238578796e-03 1.732878549792513101e-02
-2.051003248580896832e-01 6.823999807238578796e-03 5.297860727846273599e-02
-2.136950495020261132e-01 6.823999807238578796e-03 -1.529280816486269790e-02
-2.138300716526702061e-01 6.823999807238578796e-03 5.989832825221357709e-02
-2.203879947329474009e-01 6.823999807238578796e-03 -6.442972551199716014e-03
-2.291335306348577516e-01 6.823999807238578796e-03 4.824399724953121887e-02
-2.308233499327650984e-01 6.823999807238578796e-03 4.513418917652928936e-02
-2.326894566639620965e-01 6.823999807238578796e-03 5.807105995965530093e-02
-2.219361976855744600e-01 6.823999807238578796e-03 -2.049185126495281506e-03
-2.524198832862933339e-01 6.823999807238578796e-03 5.628494295633780509e-02
-2.461482917417926464e-01 6.823999807238578796e-03 5.960959556348215810e-02
-2.526642929203896104e-01 6.823999807238578796e-03 5.354182742482961610e-02
-2.301892663929091531e-01 6.823999807238578796e-03 3.775280603217599090e-02
-3.036533462196583377e-01 6.823999807238578796e-03 6.801846283923133896e-02
-2.364817067368237269e-01 6.823999807238578796e-03 3.036515523014775980e-02
-2.336926702578650539e-01 6.823999807238578796e-03 5.916813676236273856e-02
-2.340426507554229651e-01 6.823999807238578796e-03 8.915834275295922429e-03
-1.829071676121336865e-01 6.823999807238578796e-03 2.236506419132264917e-02
-1.898982517229458322e-01 6.823999807238578796e-03 -1.431682732668415614e-03
-2.160752729321924193e-01 6.823999807238578796e-03 1.911498094461867858e-02
-2.754404594833300690e-01 6.823999807238578796e-03 3.869412103908285300e-02
-1.842168599220243286e-01 6.823999807238578796e-03 -6.848753931740850232e-03
-1.985095974675618047e-01 6.823999807238578796e-03 3.830533890742267300e-02
-2.132007396206059835e-01 6.823999807238578796e-03 6.770175315610268973e-02
-2.062015574493232806e-01 6.823999807238578796e-03 4.056815868944519538e-02
-1.810733464564496242e-01 6.823999807238578796e-03 5.334418512150354563e-02
-2.187787273479239181e-01 6.823999807238578796e-03 2.488924202421821663e-02
-2.037425785629036201e-01 6.823999807238578796e-03 4.693462354498009748e-03
-3.141595071672247941e-01 6.823999807238578796e-03 5.966666364520671617e-02
-1.994345154902950334e-01 6.823999807238578796e-03 -2.209599975773021696e-02
-1.857444930582907161e-01 6.823999807238578796e-03 3.695958759771796054e-02
-2.151587112769078047e-01 6.823999807238578796e-03 2.066393192810794810e-03
-2.641246292845952359e-01 6.823999807238578796e-03 5.334231827627595318e-02
-3.265014557432663334e-01 6.823999807238578796e-03 7.025247933509212728e-02
-2.108523280707489123e-01 6.823999807238578796e-03 2.221305420688154952e-02
-2.773969978074167786e-01 6.823999807238578796e-03 6.684841511091302313e-02
-2.200616989189211892e-01 6.823999807238578796e-03 2.259104044464974037e-02
-1.915918781776186353e-01 6.823999807238578796e-03 2.321209648267924530e-02
-2.460340390800691279e-01 6.823999807238578796e-03 3.567760350225541305e-02
-2.524478056446117225e-01 6.823999807238578796e-03 3.051691321065225226e-02
-2.743392624449782491e-01 6.823999807238578796e-03 5.264317753813470280e-02
-1.964651588473820265e-01 6.823999807238578796e-03 2.398754762399588764e-02
-1.806727915352889235e-01 6.823999807238578796e-03 4.725100645710791913e-02
-1.953725824722817306e-01 6.823999807238578796e-03 2.222581283424077125e-02
-3.075023122527674180e-01 6.823999807238578796e-03 6.435617475536008214e-02
-2.365834268518008376e-01 6.823999807238578796e-03 6.778801561339087289e-02
-1.979126261882656335e-01 6.823999807238578796e-03 1.650672119174747404e-02
-2.874030403946690737e-01 6.823999807238578796e-03 3.804366713794758714e-02
-2.483640084718700403e-01 6.823999807238578796e-03 3.397655933300522402e-02
-1.892558618683784499e-01 6.823999807238578796e-03 2.152810663081288628e-02
-2.076675467548006193e-01 6.823999807238578796e-03 1.343004425777227784e-03
-2.765137869793020675e-01 6.823999807238578796e-03 5.478888475029050631e-02
-3.265031616375478896e-01 6.823999807238578796e-03 7.108920834072315897e-02
-2.622042531507693397e-01 6.823999807238578796e-03 6.298614862941127879e-02
-2.203362578893188761e-01 6.823999807238578796e-03 6.120844962901460240e-02
-1.890580294179377563e-01 6.823999807238578796e-03 -2.032075289541529495e-02
-2.971676719254123800e-01 6.823999807238578796e-03 7.098687165248117326e-02
-2.352535326806990679e-01 6.823999807238578796e-03 5.762421310559874554e-02
-2.122126209274071695e-01 6.823999807238578796e-03 7.078284041861462872e-03
-2.315261907668458019e-01 6.823999807238578796e-03 6.788633149410680523e-03
-2.595012439110981339e-01 6.823999807238578796e-03 5.293974434791670625e-02
-2.000866382532690557e-01 6.823999807238578796e-03 2.877961159913500905e-02
-2.227623631564656370e-01 6.823999807238578796e-03 2.687978587125060964e-02
-1.881022154586166617e-01 6.823999807238578796e-03 6.507691411483118582e-02
-2.199108574796662663e-01 6.823999807238578796e-03 2.351915832651297472e-02
-2.377229704235907792e-01 6.823999807238578796e-03 5.984134847619795861e-02
-2.275405476059719490e-01 6.823999807238578796e-03 2.612910148998000281e-02
-1.881184558032900633e-01 6.823999807238578796e-03 1.877030929490818706e-02
-2.000673607861943315e-01 6.823999807238578796e-03 6.475544004636341056e-02
-2.271034249732980237e-01 6.823999807238578796e-03 2.664409921225251165e-02
-2.797922516756066180e-01 6.823999807238578796e-03 3.526599705704223930e-02
-1.938195455965046332e-01 6.823999807238578796e-03 -6.572060447801827965e-03
-2.292127275906368777e-01 6.823999807238578796e-03 4.354372250846764991e-02
-1.840294625006845264e-01 6.823999807238578796e-03 -1.159896919771026547e-02
-1.998222627485377878e-01 6.823999807238578796e-03 -1.219393949025979196e-02
-2.189820147435524722e-01 6.823999807238578796e-03 1.139707178922762937e-02
-2.465134352819562946e-01 6.823999807238578796e-03 3.077938189036601851e-02
-2.723238259915316539e-01 6.823999807238578796e-03 3.576996579630149775e-02
-1.949625858212878371e-01 6.823999807238578796e-03 -1.742907290669093445e-02
-2.281314154102720704e-01 6.823999807238578796e-03 3.094429391204392421e-02
-2.171566352087596352e-01 6.823999807238578796e-03 1.781850462799533519e-02
-1.981393157531299298e-01 6.823999807238578796e-03 2.888550645941051487e-02
-2.211042673677905412e-01 6.823999807238578796e-03 5.942681494040003010e-02
-1.903682202449761274e-01 6.823999807238578796e-03 1.792097217080881183e-02
-1.865927194347808127e-01 6.823999807238578796e-03 -4.723764213697800862e-03
-2.023519154696820643e-01 6.823999807238578796e-03 5.922369171310261360e-02
-2.101437570506466401e-01 6.823999807238578796e-03 3.990315922378772501e-02
-2.396151827402096257e-01 6.823999807238578796e-03 5.361128786339882518e-02
-2.566050032556376204e-01 6.823999807238578796e-03 6.543287247524551264e-03
-1.838198742093444804e-01 6.823999807238578796e-03 -3.952513317979466922e-02
-3.116785117434017760e-01 6.823999807238578796e-03 4.969905565847261564e-02
-3.122832504890662442e-01 6.823999807238578796e-03 5.234910757523433822e-02
-2.474030015972077390e-01 6.823999807238578796e-03 -4.091887563431664820e-03
-3.027008786264641094e-01 6.823999807238578796e-03 4.230973274909625992e-02
-3.271015870668001480e-01 6.823999807238578796e-03 5.012037718897555116e-02
-2.749529226581437502e-01 6.823999807238578796e-03 1.057051567247142138e-02
-3.193950837737288273e-01 6.823999807238578796e-03 5.749055291099944287e-02
-2.880592695135816839e-01 6.823999807238578796e-03 2.028005421332509939e-02
-2.350631939120668423e-01 6.823999807238578796e-03 -8.292845463820364138e-04
-3.106283473787096461e-01 6.823999807238578796e-03 4.591037710359295587e-02
-2.777384773744240865e-01 6.823999807238578796e-03 2.695820467942726395e-02
-2.533802526797004351e-01 6.823999807238578796e-03 -4.365615342945272648e-04
-2.828088968741566678e-01 6.823999807238578796e-03 2.913956244691612296e-02
-3.327738421929464230e-01 6.823999807238578796e-03 5.274838023181016577e-02
-2.178348732814384681e-01 6.823999807238578796e-03 -1.614818162536842822e-02
-3.195622933848034641e-01 6.823999807238578796e-03 5.946850361742823943e-02
-2.473983079311425914e-01 6.823999807238578796e-03 -1.574340062262730155e-03
-2.238266315412391905e-01 6.823999807238578796e-03 -1.246605582515527763e-02
-2.540023359171472150e-01 6.823999807238578796e-03 -1.942305161405824543e-03
-3.165703277522263215e-01 6.823999807238578796e-03 5.741528516899502277e-02
-2.525647091817649903e-01 6.823999807238578796e-03 1.353863265581282949e-03
-2.806542937181408792e-01 6.823999807238578796e-03 2.425864347445948199e-02
-3.159303400179191978e-01 6.823999807238578796e-03 3.650709186690058450e-02
-3.238393349615360517e-01 6.823999807238578796e-03 4.678407457201926023e-02
-2.990066816834009433e-01 6.823999807238578796e-03 2.525888622290577146e-02
-2.389274689962314346e-01 6.823999807238578796e-03 -8.409555626267432860e-03
-2.277991784498843708e-01 6.823999807238578796e-03 -1.331104562019024690e-02
-3.308114298928405139e-01 6.823999807238578796e-03 5.455320462405310877e-02
-2.566480579947769125e-01 6.823999807238578796e-03 1.340136520374381190e-03
-2.140442082649200994e-01 6.823999807238578796e-03 -2.049269943194459431e-02
-3.878438445739578605e-02 2.184100076556205750e-02 7.181880269446175302e-02
-4.739637229622675751e-02 2.184100076556205750e-02 1.076339040959560234e-01
-5.118457816464529186e-02 2.184100076556205750e-02 1.101181796259909640e-01
-3.260285476294498552e-02 2.184100076556205750e-02 1.107207626478486917e-01
-4.305819234099649007e-02 2.184100076556205750e-02 8.300212981254100064e-02
-3.957379237367780744e-02 2.184100076556205750e-02 8.131097444132773244e-02
-5.176876688829226691e-02 2.184100076556205750e-02 1.023794909364241779e-01
-4.736499274062241915e-02 2.184100076556205750e-02 7.341624462072252055e-02
-7.473184895944953721e-02 2.184100076556205750e-02 1.063107138142962704e-01
-4.605509324605920607e-02 2.184100076556205750e-02 7.252187585169150852e-02
-6.657918256627959330e-02 2.184100076556205750e-02 9.510726269210151296e-02
-3.549039948782178183e-02 2.184100076556205750e-02 9.629911201313354208e-02
-7.427366799080079018e-02 2.184100076556205750e-02 1.042341354999463121e-01
-5.860320848484550094e-02 2.184100076556205750e-02 8.560924405298182827e-02
-4.080444669856539419e-02 2.184100076556205750e-02 9.350746397658346587e-02
-4.079882417870635963e-02 2.184100076556205750e-02 9.095043471911472277e-02
-3.921503142340714010e-02 2.184100076556205750e-02 7.644526071791110655e-02
-6.516672281951091383e-02 2.184100076556205750e-02 1.071294149493295933e-01
-3.893321182402399716e-02 2.184100076556205750e-02 7.779524832874593065e-02
-3.536899318050240604e-02 2.184100076556205750e-02 9.187712303280684556e-02
-5.387791885391854385e-02 2.184100076556205750e-02 7.865674607459288703e-02
-5.088136284194947484e-02 2.184100076556205750e-02 9.045659100401587382e-02
-3.532660964866760761e-02 2.184100076556205750e-02 1.100611709617413114e-01
-6.842964503263890275e-02 2.184100076556205750e-02 9.650296221184774537e-02
-5.824961764183025914e-02 2.184100076556205750e-02 9.485231314676595415e-02
-3.796117253139094649e-02 2.184100076556205750e-02 7.635844462345124650e-02
-7.821767889046858657e-02 2.184100076556205750e-02 1.062248741054892115e-01
-4.716634577643266657e-02 2.184100076556205750e-02 9.347008737746979878e-02
-5.478008504325020123e-02 2.184100076556205750e-02 8.976215523347899627e-02
-4.440399771202145629e-02 2.184100076556205750e-02 8.682649148626080116e-02
-3.602395730860522005e-02 2.184100076556205750e-02 8.489370671018117709e-02
-5.449364885835139560e-02 2.184100076556205750e-02 1.007062276379564469e-01
-5.490755295478255693e-02 2.184100076556205750e-02 8.710549647215060087e-02
-3.520684451235378543e-02 2.184100076556205750e-02 1.051867414880564428e-01
-3.338376652407507028e-02 2.184100076556205750e-02 7.930290002750614575e-02
-6.104212408157068392e-02 2.184100076556205750e-02 9.273899635869625735e-02
-4.390254323354143146e-02 2.184100076556205750e-02 8.618365140512786182e-02
-4.889134117763467569e-02 2.184100076556205750e-02 1.065350193430193715e-01
-5.615445689937495488e-02 2.184100076556205750e-02 8.881261465036435765e-02
-4.480705670461454515e-02 2.184100076556205750e-02 8.803434247378087718e-02
-5.697246433902829893e-02 2.184100076556205750e-02 7.188658498985077416e-02
-8.237132329335282444e-02 2.184100076556205750e-02 8.788027871945341962e-02
-6.271165430610457781e-02 2.184100076556205750e-02 7.855247430672328279e-02
-7.560475268891674039e-02 2.184100076556205750e-02 7.514294402925050798e-02
-8.481444751104062763e-02 2.184100076556205750e-02 1.087461642718923205e-01
-6.373636770054476319e-02 2.184100076556205750e-02 8.747410026633088698e-02
-6.424181028394787552e-02 2.184100076556205750e-02 8.845159291242191135e-02
-8.164268251506563712e-02 2.184100076556205750e-02 6.819677723559382232e-02
-8.327534738119589386e-02 2.184100076556205750e-02 1.099896914555340277e-01
-7.939015203964604195e-02 2.184100076556205750e-02 7.292687692162726221e-02
-8.326224943396352829e-02 2.184100076556205750e-02 6.880372536892380431e-02
-7.521335332020687159e-02 2.184100076556205750e-02 6.321605164459015436e-02
-6.476666098139893801e-02 2.184100076556205750e-02 8.786071478539825286e-02
-7.953880808778310274e-02 2.184100076556205750e-02 1.025587984370862765e-01
-5.527545900426886899e-02 2.184100076556205750e-02 6.651839540339728185e-02
-7.023763711034577972e-02 2.184100076556205750e-02 9.642010532611985929e-02
-6.277349504750398546e-02 2.184100076556205750e-02 6.315781912885080895e-02
-4.517880187985497814e-02 2.184100076556205750e-02 5.883555908203630391e-02
-6.413559622796183302e-02 2.184100076556205750e-02 7.275303956475914768e-02
-8.540123815404922214e-02 2.184100076556205750e-02 1.127116849064786763e-01
-7.820358550802405939e-02 2.184100076556205750e-02 8.940014538990559423e-02
-5.900136683675227811e-02 2.184100076556205750e-02 7.771793639558932654e-02
-8.322751174759307480e-02 2.184100076556205750e-02 9.070966485084742958e-02
-6.181817841989599438e-02 2.184100076556205750e-02 5.938209717942610072e-02
-8.595266767098244665e-02 2.184100076556205750e-02 6.754741828403007520e-02
-8.618021597734809580e-02 2.184100076556205750e-02 6.762391612008734898e-02
-7.341467155760064700e-02 2.184100076556205750e-02 7.614879942258027945e-02
-6.012282069119832123e-02 2.184100076556205750e-02 7.460677450606374717e-02
-6.632507676954782494e-02 2.184100076556205750e-02 7.466458607766854327e-02
-8.066308918057826793e-02 2.184100076556205750e-02 8.590379045924385892e-02
-5.604203248194587761e-02 2.184100076556205750e-02 7.823514408128420805e-02
-8.576895798102310287e-02 2.184100076556205750e-02 6.021865552049399800e-02
-5.467237172502488474e-02 2.184100076556205750e-02 6.411663102554401861e-02
-7.887067633524585952e-02 2.184100076556205750e-02 9.363082398070213253e-02
-6.515572017888224265e-02 2.184100076556205750e-02 6.153982595194763816e-02
-7.678912742555936422e-02 2.184100076556205750e-02 6.060443158219671472e-02
-5.319032625632390959e-02 2.184100076556205750e-02 7.046546785212573494e-02
-4.331161834837631702e-02 2.184100076556205750e-02 6.377984696473026904e-02
-6.025787077675808651e-02 2.184100076556205750e-02 7.175991188542230059e-02
-8.369446670126323706e-02 2.184100076556205750e-02 7.307880604295791116e-02
-1.742984867919050995e-01 -2.668681880551077718e-02 -3.384569210658606997e-02
-1.739690697811185072e-01 -2.637736691644782319e-02 -2.665752702073044891e-02
-1.743382630108381015e-01 -2.559479010255112305e-02 -8.503972211255350286e-03
-1.745479567108894903e-01 -2.644800037459090966e-02 -4.555550486704478680e-02
-1.739388889736750154e-01 -2.952730595211446041e-02 -6.020460946385885331e-02
-1.741737017838939083e-01 -2.604311630050779036e-02 -4.674332503440798564e-02
-1.742890466025509844e-01 -2.368037217949844550e-02 -1.950655492244973352e-02
-1.739901957584771286e-01 -2.338283144575076938e-02 -1.104182902931727384e-02
-1.744967394740395972e-01 -2.546742561395851784e-02 -4.509981817600369758e-02
-1.742189881211746172e-01 -2.934193245462885652e-02 -3.414692527416279821e-02
-1.738376779122045024e-01 -2.327927781740299004e-02 -1.040288095661386081e-02
-1.736948788579211755e-01 -2.868952003880646806e-02 -3.237556426103847113e-02
-1.747236386625213578e-01 -2.264167349759676692e-02 3.619917059130105383e-04
-1.740310683439176553e-01 -2.764712994906494761e-02 -3.597756470411044884e-03
-1.736053163486819817e-01 -2.373083807730843112e-02 -1.712197880564906433e-02
-1.739769126207640904e-01 -2.214075841021803659e-02 -2.599368526562718246e-02
-1.747113278206099962e-01 -2.480750273767281036e-02 -6.120272742115509534e-02
-1.747407547810599093e-01 -2.479579794631970452e-02 -1.415672548741169108e-02
-1.748175647696739166e-01 -3.010772012998810115e-02 -4.389976572392818854e-02
-1.739412560568979194e-01 -3.528059015637140250e-02 -5.877704098653947079e-02
-1.747833041638958418e-01 -2.700863645686820205e-02 6.098030839490161531e-02
-1.740588110263621979e-01 -2.830912094613295682e-02 -9.026729412935613484e-03
-1.747194671033988622e-01 -2.452381571177097985e-02 -1.245281785350404319e-02
-1.731715359284106970e-01 -2.497234940431585642e-02 -7.329493229864529613e-03
-1.735955984944763664e-01 -2.481518052358625687e-02 -3.761686475772518801e-02
-1.750029128189842242e-01 -2.616709190175322414e-02 -6.031379394591559334e-02
-1.750144371564893164e-01 -2.480652149854299313e-02 -5.695631193480131527e-02
-1.742886879337993689e-01 -1.794271515046082233e-02 -3.774079861232909616e-02
-1.727077476212720564e-01 -1.542246589691279209e-02 7.582339286225044106e-03
-1.729449116153070065e-01 -1.375933837414218194e-02 2.925980513744317127e-02
-1.750354694649056964e-01 -3.093552590779083400e-02 -5.643649121609805447e-02
-1.746695523934307936e-01 -3.035875950773516199e-02 1.365384307970272590e-02
-1.733836883621079350e-01 -3.290688032743580016e-02 -2.855869368967887262e-02
-1.732948888396237952e-01 -2.953400507234345967e-02 1.803681703709445264e-02
-1.750389329168114128e-01 -2.879067272748582831e-02 -5.701656487999867684e-02
-1.731952944639558734e-01 -2.766666938944516846e-02 -4.478101950341677878e-02
-1.735490503228891146e-01 -2.460511500664240223e-02 -3.518740685348799302e-02
-1.749413799888081822e-01 -2.371627609647959656e-02 -1.538158240080330502e-02
-1.751421564957449106e-01 -2.405402691907150906e-02 -4.264337608322081585e-02
-1.728144667438465953e-01 -1.861423943684047816e-02 -3.763227174224867411e-02
-1.751648098995584601e-01 -1.905363394765562796e-02 -5.583026073260099337e-02
-1.744769624614372627e-01 -1.833690934768603120e-02 -4.418810938109506148e-02
-1.732919177476102690e-01 -1.177264719152299084e-02 5.474546671799250530e-02
-1.734575549552274942e-01 -1.311670156434664898e-02 3.492975026071393208e-02
-1.720344071378903661e-01 -1.474451763116639905e-02 2.333905669788729348e-02
-1.751092392923589147e-01 -3.061982132055239558e-02 -5.245677211152895147e-02
-1.757663269629331226e-01 -2.804884010607824885e-02 4.870095128061589090e-02
-1.759331116677881057e-01 -2.803226063220716491e-02 4.914927175474403248e-02
-1.728748132181054109e-01 -3.253681471752517540e-02 -2.647522409776849328e-02
-1.730980029900106854e-01 -2.726319740678300949e-02 4.869844461697096782e-02
-1.750837352326118090e-01 -2.528120449147134435e-02 -7.110338886243984351e-03
-1.752741037921522749e-01 -2.236342697316790265e-02 -3.592442558896497169e-03
-1.733810534251394864e-01 -2.600420066010421943e-02 -5.696400332698552116e-02
-1.736449033545112985e-01 -2.054713476059367300e-02 -9.486182662701032192e-03
-1.750012027883493804e-01 -2.596616428457886386e-02 -4.846652606116222395e-02
-1.721278609246414681e-01 -1.786023601049647330e-02 -2.121173982823652826e-02
-1.715298332746884036e-01 -1.688968487629620083e-02 -7.397642989909551095e-04
-1.756085077348961410e-01 -1.633919050051632627e-02 -1.902095355600050275e-02
-1.753350016866994376e-01 -1.592365989395801845e-02 -1.257050606870697626e-02
-1.747591702138694691e-01 -1.197054683260880686e-02 4.395524623531014280e-02
-1.758016390725366251e-01 -1.382722007482385315e-02 1.556201543025058365e-02
-1.713028098173082214e-01 -1.454529043787074032e-02 3.459850267550235864e-02
-1.758825310233566863e-01 -3.404364338166334519e-02 -3.478102792799397935e-02
-1.752594896622758358e-01 -3.298258741043137016e-02 -2.078887833461616486e-02
-1.766549494604411907e-01 -2.846947159988018339e-02 4.398905596027036236e-02
-1.768194197010155011e-01 -2.963626181827530570e-02 2.792534584171465356e-02
-1.766955075462007807e-01 -2.726498827175577802e-02 6.375328868242645386e-02
-1.732830734428085218e-01 -3.023989583501329736e-02 2.385821663631110950e-02
-1.732091760958635596e-01 -2.971800408127675194e-02 3.071107734362837210e-02
-1.729341728473115236e-01 -2.926899710887741202e-02 1.970272639479435373e-02
-1.761931090291617708e-01 -1.080238000431549446e-02 5.682650403860626392e-02
-1.756367394398145876e-01 -1.183761640640867800e-02 4.371310579546933833e-02
-1.765337121219279493e-01 -3.371941434835451501e-02 -1.411650786317306117e-02
-1.767374756850971229e-01 -3.187044923806090641e-02 1.205325788453087688e-02
-1.753584848872646318e-01 -2.591981024874239967e-02 -1.139802038241859161e-02
-1.728787105569299654e-01 -2.551657046708784987e-02 -1.763583062636410459e-02
-1.733062540076258928e-01 -3.127826489241809088e-02 -3.710682310794991695e-02
-1.735502056638811019e-01 -2.437062539237333514e-02 -5.842020962648594717e-02
-1.712330081485558264e-01 -1.851625094431881557e-02 -1.999134171804944210e-02
-1.715000112795409259e-01 -1.962227886066281526e-02 -3.851637777647633210e-02
-1.767864755160509782e-01 -1.820715455390872761e-02 -4.712430249008933703e-02
-1.782490559467046209e-01 -1.602416222676112528e-02 -1.475725783055811639e-02
-1.711493310061907303e-01 -1.585591400224548031e-02 1.809319118301961488e-02
-1.766956665647114733e-01 -3.500390053403093504e-02 -4.711959537453877522e-02
